   6.9127264e+01   8.7117903e+01   1.5913274e+02
   1.0760802e+02   9.8153222e+01  -1.1275235e+01
   6.6998509e+01   8.3569946e+01   1.7347464e+02
   1.0768275e+02   9.5255941e+01  -1.2658224e+01
   6.8543090e+01   8.1807977e+01   1.6233652e+02
   1.0776708e+02   9.2354580e+01  -1.4034422e+01
   1.0786068e+02   8.9448905e+01  -1.5403789e+01
   6.7993364e+01   7.6536154e+01   1.6554085e+02
   1.0796321e+02   8.6538681e+01  -1.6766284e+01
   6.7730512e+01   7.3913629e+01   1.6714264e+02
   1.0807435e+02   8.3623675e+01  -1.8121867e+01
   6.7475184e+01   7.1299544e+01   1.6874386e+02
   1.0819377e+02   8.0703652e+01  -1.9470499e+01
   6.7227017e+01   6.8693533e+01   1.7034427e+02
   1.0832115e+02   7.7778378e+01  -2.0812138e+01
   6.6985647e+01   6.6095227e+01   1.7194364e+02
   1.0845614e+02   7.4847619e+01  -2.2146745e+01
   6.6750712e+01   6.3504258e+01   1.7354173e+02
   1.0859843e+02   7.1911141e+01  -2.3474280e+01
   1.0874768e+02   6.8968709e+01  -2.4794702e+01
   5.0584220e+01   5.1416113e+01   6.5552729e+01
   5.3363869e+01   5.1430722e+01   6.6121029e+01
   5.5932607e+01   5.1458614e+01   6.6010789e+01
   5.8747504e+01   5.1475177e+01   6.6349227e+01
   6.1882519e+01   5.1635903e+01   6.0983916e+01
   4.3364522e+01   4.8938370e+01   5.1554205e+01
   5.0506476e+01   4.8454708e+01   7.5028907e+01
   5.3298050e+01   4.8541842e+01   7.2410489e+01
   5.5855294e+01   4.8440422e+01   7.7904443e+01
   5.8640430e+01   4.8578930e+01   7.2796268e+01
   6.1819571e+01   4.8735285e+01   6.6907344e+01
   6.4312694e+01   4.8792848e+01   6.5027420e+01
   4.5190475e+01   4.5687656e+01   7.4793250e+01
   4.7573330e+01   4.5681246e+01   7.6259372e+01
   5.0499505e+01   4.5675308e+01   7.7913761e+01
   5.3218160e+01   4.5680778e+01   7.8836108e+01
   5.5853441e+01   4.5666236e+01   8.0619414e+01
   5.8520118e+01   4.5711159e+01   7.9364709e+01
   6.1709872e+01   4.5854269e+01   7.3270874e+01
   6.4252327e+01   4.5916391e+01   7.0838871e+01
   6.7313461e+01   4.6071167e+01   6.3820114e+01
   7.0067565e+01   4.6267733e+01   5.4658641e+01
   4.5167462e+01   4.2857674e+01   8.1035567e+01
   4.7530910e+01   4.2905001e+01   7.9611933e+01
   5.0463326e+01   4.2850684e+01   8.4015122e+01
   5.3159255e+01   4.2853881e+01   8.5036291e+01
   5.5859348e+01   4.2904858e+01   8.3277775e+01
   5.8485771e+01   4.2937728e+01   8.2369137e+01
   6.1590160e+01   4.3001428e+01   7.9718840e+01
   6.4231825e+01   4.3121060e+01   7.3633576e+01
   6.7269078e+01   4.3252531e+01   6.6802585e+01
   6.9468364e+01   4.2965152e+01   8.3033664e+01
   4.7430770e+01   4.0086708e+01   8.6547562e+01
   5.0480009e+01   4.0107770e+01   8.6679292e+01
   5.3195809e+01   4.0158650e+01   8.4624726e+01
   5.5871126e+01   4.0111993e+01   8.8654775e+01
   5.8463407e+01   4.0178466e+01   8.5273341e+01
   6.1621085e+01   4.0283184e+01   7.9402027e+01
   6.4157024e+01   4.0288159e+01   7.9579784e+01
   6.7118198e+01   4.0390438e+01   7.3367978e+01
   7.0080882e+01   4.0566477e+01   6.2274079e+01
   4.2262061e+01   3.7500044e+01   7.6129410e+01
   4.7475221e+01   3.7400645e+01   8.6044692e+01
   5.0520871e+01   3.7417552e+01   8.6231763e+01
   5.3191035e+01   3.7378489e+01   9.0284016e+01
   5.5903100e+01   3.7418280e+01   8.8324832e+01
   5.8503106e+01   3.7474956e+01   8.4880891e+01
   6.1528411e+01   3.7474724e+01   8.5601884e+01
   6.4192954e+01   3.7564416e+01   7.9251477e+01
   6.7153406e+01   3.7649008e+01   7.3060415e+01
   7.0111978e+01   3.7795817e+01   6.2017659e+01
   4.2312051e+01   3.4795361e+01   7.5552028e+01
   4.7521655e+01   3.4710737e+01   8.5539193e+01
   5.0563875e+01   3.4723621e+01   8.5780773e+01
   5.3227592e+01   3.4689481e+01   8.9913726e+01
   5.5937648e+01   3.4721185e+01   8.7988458e+01
   5.8545084e+01   3.4767648e+01   8.4485879e+01
   6.1561601e+01   3.4764367e+01   8.5306266e+01
   6.4230222e+01   3.4836890e+01   7.8930974e+01
   6.7190978e+01   3.4903937e+01   7.2752170e+01
   7.0077462e+01   3.4986000e+01   6.4939657e+01
   4.7569741e+01   3.2016662e+01   8.5030910e+01
   5.0608646e+01   3.2025648e+01   8.5326618e+01
   5.3266081e+01   3.1996656e+01   8.9539049e+01
   5.5974392e+01   3.2020351e+01   8.7645962e+01
   5.8588966e+01   3.2056219e+01   8.4088563e+01
   6.1727877e+01   3.2107936e+01   7.8445840e+01
   6.4268581e+01   3.2105338e+01   7.8617304e+01
   6.7325026e+01   3.2185253e+01   6.8989323e+01
   7.0181833e+01   3.2244088e+01   6.1497956e+01
   4.5410469e+01   2.9354404e+01   7.8303596e+01
   4.7619148e+01   2.9318101e+01   8.4519691e+01
   5.0654809e+01   2.9323303e+01   8.4869592e+01
   5.3364268e+01   2.9341196e+01   8.2944210e+01
   5.6045927e+01   2.9354203e+01   8.1443082e+01
   5.8702387e+01   2.9362542e+01   8.0313777e+01
   6.1767110e+01   2.9374977e+01   7.8123984e+01
   6.4423871e+01   2.9410853e+01   7.1966226e+01
   6.7365682e+01   2.9424069e+01   6.8686181e+01
   7.0153521e+01   2.9441186e+01   6.4396302e+01
   4.7838778e+01   2.6650473e+01   7.6293931e+01
   5.0778700e+01   2.6645911e+01   7.7843242e+01
   5.3409972e+01   2.6626044e+01   8.2517902e+01
   5.6089015e+01   2.6631927e+01   8.1059994e+01
   5.8750492e+01   2.6634369e+01   7.9898737e+01
   6.1957585e+01   2.6666755e+01   7.1023865e+01
   6.4519649e+01   2.6669961e+01   6.8500109e+01
   6.7548524e+01   2.6687015e+01   6.1887809e+01
   7.0257632e+01   2.6713702e+01   5.3229116e+01
   4.8068702e+01   2.3945175e+01   6.7929821e+01
   5.0920576e+01   2.3935645e+01   7.0601415e+01
   5.3566738e+01   2.3921068e+01   7.5310614e+01
   5.6196636e+01   2.3918337e+01   7.4481969e+01
   5.8956916e+01   2.3915840e+01   7.2498164e+01
   6.2064943e+01   2.3916567e+01   6.7385629e+01
   6.4641809e+01   2.3917289e+01   6.2128682e+01
   6.7620750e+01   2.3915814e+01   5.6073071e+01
   5.3724867e+01   2.1181715e+01   6.8059385e+01
   5.6300474e+01   2.1172980e+01   6.7912581e+01
   5.9187236e+01   2.1162726e+01   6.2077029e+01
   6.2194834e+01   2.1148928e+01   5.8107881e+01
